ply
format ascii 1.0
element vertex 873
property float x
property float y
property float z
end_header
-0.369287987654073 -0.333333333333333 0.589051398183344
-0.36785833232859 -0.333333333333333 0.592549969620657
-0.364214128057994 -0.333333333333333 0.602524284469001
-0.366501477954098 -0.333333333333333 0.608782642683141
-0.36235868272831 -0.333333333333333 0.614302250519374
-0.365734969636697 -0.333333333333333 0.633372875805225
-0.366946829174917 -0.333333333333333 0.64182841441554
-0.373258830720695 -0.333333333333333 0.652737856013073
-0.371366693239434 -0.333333333333333 0.652469504372254
-0.369592972684869 -0.333333333333333 0.671971526097785
-0.373140516709719 -0.333333333333333 0.675416163809096
-0.37025074743725 -0.333333333333333 0.681316337875022
-0.368552143727947 -0.333333333333333 0.681663432040422
-0.369614853312165 -0.333333333333333 0.694173880134673
-0.367802365694296 -0.333333333333333 0.708865598652953
-0.3670776742563 -0.333333333333333 0.707780480686017
-0.365127770402456 -0.333333333333333 0.713774453304138
-0.371464591770677 -0.333333333333333 0.733628558215255
-0.36928189329625 -0.333333333333333 0.746261789328735
-0.364978545534749 -0.333333333333333 0.747136871395197
-0.368723139815172 -0.333333333333334 0.7613285525506
-0.365195829192726 -0.333333333333333 0.763943540588447
-0.365822815857505 -0.333333333333333 0.775191584340931
-0.368468951312932 -0.333333333333334 0.781446106843444
-0.370355675749382 -0.333333333333333 0.783840898563682
-0.370675926208486 -0.333333333333333 0.801896615829345
-0.365107289792167 -0.333333333333333 0.800467136396307
-0.369640523951797 -0.333333333333333 0.813578109481376
-0.36907151415884 -0.333333333333333 0.815904215938564
-0.371636228594778 -0.333333333333333 0.832556081386667
-0.369902600391564 -0.333333333333333 0.839117926316471
-0.370134442017639 -0.333333333333333 0.847152938654405
-0.372005239340336 -0.333333333333333 0.856730244678056
-0.366679116978213 -0.333333333333333 0.862772921511088
-0.368405874596552 -0.333333333333333 0.874198979013178
-0.371290915284948 -0.333333333333333 0.875064686551036
-0.364680747132738 -0.333333333333333 0.885755231458029
-0.372820326615637 -0.333333333333333 0.900900916568192
-0.367516469035762 -0.333333333333333 0.903300783932287
-0.363932640397 -0.333333333333333 0.908741044269736
-0.374819156163849 -0.333333333333333 0.928118763119589
-0.366591097645767 -0.333333333333333 0.923141521217281
-0.37067130441737 -0.333333333333333 0.942254264604933
-0.363360317674505 -0.333333333333333 0.944004619043666
-0.365500803196621 -0.333333333333333 0.954831774759523
-0.356573366476782 -0.325966399883416 0.955555555555555
-0.358797055332505 -0.322141895430849 0.955555555555555
0.111111111111113 0.15785277102077 0.43016713578816
0.111111111111113 0.150339390022925 0.448929668576852
0.111111111111113 0.147406492438841 0.453912402518187
0.111111111111113 0.15258949125678 0.459448521314123
0.111111111111113 0.150885078819728 0.472763553134097
0.111111111111113 0.147368788414363 0.489298014798123
0.111111111111114 0.160781027945407 0.490149353546209
0.111111111111114 0.151403884483087 0.508451261983349
0.111111111111113 0.158365872896215 0.511309628465541
0.111111111111114 0.155008306629259 0.515852976869814
0.111111111111113 0.149580216504922 0.535251220424701
0.111111111111114 0.159042015816354 0.548808839088532
0.111111111111113 0.147275074232297 0.56092408948449
0.111111111111114 0.16351062498245 0.562325798765048
0.111111111111114 0.157476462000299 0.576420526341527
0.111111111111113 0.151700255632368 0.59118985931589
0.111111111111113 0.155678514614944 0.59565127956886
0.111111111111113 0.163286011427379 0.602879885813906
0.111111111111113 0.163453244060272 0.609471994927527
0.111111111111113 0.155590876720746 0.633780528007873
0.111111111111114 0.152225067465605 0.637635967550135
0.111111111111113 0.162110513374226 0.646523471573243
0.111111111111113 0.149371195757187 0.664275078657985
0.111111111111113 0.148376529321437 0.67304358613132
0.111111111111113 0.160489824475157 0.676454282855065
0.111111111111113 0.152085582024888 0.699517098019317
0.111111111111113 0.153355095384465 0.704017586067844
0.111111111111113 0.15096447425598 0.714314355148678
0.111111111111113 0.148087742549391 0.73204600324556
0.111111111111114 0.155215083874832 0.741111931421969
0.111111111111114 0.150786602340476 0.755291670318452
0.111111111111114 0.161771583896204 0.749106751678712
0.111111111111114 0.150106469073444 0.767017892563706
0.111111111111114 0.157729931897194 0.780641014545602
0.111111111111113 0.154278698783659 0.791996150054471
0.111111111111113 0.160948592269632 0.796948969826014
0.111111111111113 0.159490126299687 0.804055011379069
0.111111111111113 0.148255440065293 0.829603460179354
0.111111111111113 0.162398705861006 0.825047830908038
0.111111111111113 0.155766463549113 0.843642842496406
0.111111111111113 0.151657762021848 0.852648504773882
0.111111111111113 0.159551086913416 0.862387826948644
0.111111111111113 0.157840879310517 0.877615087552518
0.111111111111113 0.158416855254623 0.876924591042717
0.111111111111113 0.153456384200026 0.894805317530426
0.111111111111114 0.150480875988458 0.906634161628357
0.111111111111114 0.147567910494522 0.920526579252341
0.111111111111114 0.153764046994637 0.925138281719201
0.111111111111114 0.157452037820316 0.940046249809573
0.111111111111114 0.150552872004688 0.954333744610953
0.111111111111113 0.155662504150636 0.953073992283989
0.129298724467436 0.177260385834947 0.955555555555555
0.140430093327068 0.178881346011062 0.955555555555555
0.153948214855047 0.194244666499687 0.955555555555555
-0.381562307239758 -0.333333333333333 0.495962032080864
-0.379970494695442 -0.333333333333333 0.504736354370133
-0.382604526998561 -0.333333333333333 0.511438381383962
-0.378299379266652 -0.333333333333333 0.517331313268782
-0.377938966552477 -0.333333333333333 0.524841314540862
-0.380230187886649 -0.333333333333333 0.539290615638822
-0.377824157383445 -0.333333333333333 0.546656780273717
-0.380217309362395 -0.333333333333333 0.548080749042883
-0.377373103099493 -0.333333333333333 0.556872036635374
-0.380607169804102 -0.333333333333333 0.575920942005537
-0.380271333096215 -0.333333333333333 0.57406985223535
-0.387963103950982 -0.333333333333333 0.5936086882956
-0.379053486980006 -0.333333333333333 0.591271243882802
-0.373862628550543 -0.333333333333333 0.596705360106695
-0.379499826001579 -0.333333333333333 0.609550515095266
-0.377093354033625 -0.333333333333333 0.619675374960822
-0.37461278446661 -0.333333333333333 0.621790650573041
-0.381285141347718 -0.333333333333333 0.642712602314145
-0.379221213352294 -0.333333333333333 0.647621215068596
-0.377057660279154 -0.333333333333333 0.6551883991656
-0.38729306257646 -0.333333333333334 0.666887594882409
-0.373973076932532 -0.333333333333333 0.667621076337799
-0.374356959153729 -0.333333333333333 0.678034324197012
-0.38356533907595 -0.333333333333333 0.689272634792513
-0.376597538555735 -0.333333333333333 0.696772194856189
-0.380680110685916 -0.333333333333333 0.710112388266631
-0.384812317657101 -0.333333333333333 0.718952590329732
-0.383047957172058 -0.333333333333333 0.723038494966083
-0.3812437230531 -0.333333333333333 0.734577717862923
-0.378558050731737 -0.333333333333333 0.729982803491804
-0.385286680077514 -0.333333333333333 0.751584956597463
-0.378870297245445 -0.333333333333333 0.754513793022167
-0.379366953365746 -0.333333333333333 0.764349945500799
-0.380084324562638 -0.333333333333333 0.774946361400823
-0.382797370232624 -0.333333333333333 0.779570946557105
-0.377130579244062 -0.333333333333333 0.785209842109186
-0.378817751679315 -0.333333333333333 0.800668095385063
-0.383388711009156 -0.333333333333333 0.807182649627467
-0.377088367049366 -0.333333333333333 0.809059916671834
-0.378859544559502 -0.333333333333333 0.819386089788078
-0.384072400015469 -0.333333333333333 0.829825947682798
-0.383079675085707 -0.333333333333333 0.834701120612891
-0.38051520844262 -0.333333333333333 0.853402368092555
-0.379824314206933 -0.333333333333333 0.857472429638258
-0.375008016191134 -0.333333333333333 0.859819145475771
-0.377261288477543 -0.333333333333334 0.875476642336559
-0.38574834634485 -0.333333333333333 0.884263580186713
-0.377224138761337 -0.333333333333333 0.885845673281408
-0.376241447782509 -0.333333333333333 0.894490681541641
-0.382703807218226 -0.333333333333333 0.911100424382221
-0.382026150278144 -0.333333333333333 0.917524601357145
-0.381350669991629 -0.333333333333333 0.924703661155784
-0.385969021672564 -0.333333333333333 0.930903699100373
-0.385613276181003 -0.333333333333333 0.941397180385845
-0.385707417250954 -0.333333333333333 0.952869227179308
-0.375474195285901 -0.333333333333333 0.948953490669001
-0.372988847182711 -0.328702261286794 0.955555555555555
-0.370090839042728 -0.319986956476967 0.955555555555555
-0.366252226569313 -0.312206692581227 0.955555555555555
-0.35538673802171 -0.31204218217218 0.955555555555555
0.111111111111113 0.163926499434211 0.42917026764395
0.111111111111113 0.163425999658451 0.43989242487212
0.111111111111114 0.173749887354134 0.452133496636372
0.111111111111114 0.171688442096525 0.464111289196069
0.111111111111114 0.169604739765692 0.477651184552032
0.111111111111114 0.176764946927455 0.479253208066087
0.111111111111114 0.174297470203227 0.486179331764708
0.111111111111114 0.16936985384528 0.508448957114726
0.111111111111113 0.172094053780538 0.515585099113009
0.111111111111113 0.172132958867826 0.528919859598291
0.111111111111114 0.169310358641146 0.538181832830227
0.111111111111114 0.175849919846779 0.549463335930788
0.111111111111113 0.171667593925539 0.553733594277447
0.111111111111114 0.164449644527763 0.577175819772715
0.111111111111113 0.166299134167533 0.585105337028383
0.111111111111113 0.168923918119265 0.588598342822387
0.111111111111113 0.175464097315873 0.598054095845115
0.111111111111114 0.176380967587699 0.613684182357069
0.111111111111113 0.173086144679934 0.62116749218486
0.111111111111113 0.168688780243188 0.633507979423668
0.111111111111114 0.171324835325052 0.649431134307805
0.111111111111114 0.172393168281491 0.656183627180179
0.111111111111114 0.170853172375249 0.668258908176321
0.111111111111114 0.174916711248321 0.676908262533441
0.111111111111114 0.168480934287923 0.684017772231962
0.111111111111114 0.172008791113835 0.700449307779685
0.111111111111114 0.167942321512818 0.70986599721668
0.111111111111114 0.172231355080369 0.721569544249291
0.111111111111114 0.175087096804249 0.718172735980499
0.111111111111114 0.172523391258372 0.736317465917273
0.111111111111114 0.167974870625101 0.742931008571503
0.111111111111113 0.167776731529293 0.759944693683934
0.111111111111113 0.167020367074136 0.772261496022684
0.111111111111113 0.171134842644787 0.781793745700462
0.111111111111114 0.169503326207589 0.791903149482221
0.111111111111114 0.177575649101385 0.803092527754338
0.111111111111113 0.178061526323522 0.810918744296747
0.111111111111113 0.17102962750652 0.824765249831673
0.111111111111114 0.171856150898563 0.83724025912763
0.111111111111114 0.162221951570759 0.855859872205556
0.111111111111113 0.173778176464622 0.855929564013762
0.111111111111114 0.178125065057068 0.866802719302022
0.111111111111114 0.172831949663637 0.882606131023201
0.111111111111114 0.165720805588639 0.894543576416339
0.111111111111114 0.176766209283435 0.900131404368834
0.111111111111114 0.176875213075057 0.903355884924627
0.111111111111113 0.164872803700465 0.926931451244697
0.111111111111114 0.176229921064363 0.931457040007953
0.111111111111114 0.175781338491965 0.936362829376035
0.111111111111114 0.174328480468434 0.952173395995715
0.122130965187836 0.183312855909111 0.955555555555555
0.139129531149016 0.200631926432394 0.955555555555555
0.135194613845135 0.197464386762616 0.955555555555555
0.145471463441381 0.216423424153503 0.955555555555555
0.162403953898164 0.227106412832553 0.955555555555555
-0.393860003607865 -0.333085674589637 0.503613455982086
-0.394970477285544 -0.333030351280586 0.515694990161074
-0.385762849566121 -0.333333333333333 0.521969470031036
-0.395191845862726 -0.333019322795666 0.534930433860362
-0.392830732956623 -0.33313695239971 0.541392166205441
-0.386098146238846 -0.333333333333333 0.540454792599551
-0.397319470282753 -0.33291332548506 0.555343102946875
-0.396182769040053 -0.332969955439836 0.571228536528337
-0.392801466384424 -0.333138410447434 0.568567546525736
-0.391512203389614 -0.333202640961441 0.577923923325267
-0.38894333474227 -0.333330620864921 0.584837843640748
-0.3867021940001 -0.333333333333333 0.589099641327634
-0.392418737313137 -0.333157477841032 0.606747882758221
-0.392401734785008 -0.333158324899488 0.610304960443008
-0.387616068636923 -0.333333333333333 0.616113657706081
-0.396117695264875 -0.332973197386627 0.635401155848047
-0.392761916677808 -0.333140380796381 0.63086069976209
-0.392591196890517 -0.33314888598092 0.653415218715938
-0.389089962752644 -0.333323315922088 0.64672645933064
-0.391831867452589 -0.333186715438753 0.658476812777227
-0.386905166043601 -0.333333333333333 0.669760829129711
-0.389374775349161 -0.333309126684094 0.681536813622061
-0.389063335076012 -0.333324642501198 0.693021858555478
-0.394733757412338 -0.333042144560307 0.697676002486337
-0.389296415454919 -0.333313030539479 0.699156451548807
-0.392829028492726 -0.33313703731535 0.707087102607716
-0.391472084772544 -0.333204639653256 0.72529436586516
-0.393076463577462 -0.333124710208514 0.731396220488236
-0.390253125587912 -0.333265367662436 0.732572633197702
-0.389424459286555 -0.333306651452237 0.746320592105568
-0.386204943393635 -0.333333333333333 0.74841604044955
-0.396511211459627 -0.332953592583293 0.766939440478064
-0.391935387956721 -0.333181558092876 0.772290740984358
-0.389479093395177 -0.333303929605032 0.77621830503866
-0.393202302649225 -0.333118440961437 0.784338233255313
-0.393860215950302 -0.33308566401083 0.79990325067411
-0.392740272374751 -0.333141459106017 0.796045833808623
-0.391091181501437 -0.333223616086295 0.818657836346608
-0.388063480953342 -0.333333333333333 0.814708084398088
-0.391485330148468 -0.333203979774467 0.825955080026988
-0.390894648485099 -0.333233407274524 0.831169271811848
-0.394347731458997 -0.333061376203117 0.84712360947839
-0.392019095102215 -0.333177387839791 0.857898654973697
-0.387043112161866 -0.333333333333333 0.854115843919534
-0.393779792150673 -0.333089670689071 0.874634998553576
-0.39027286994604 -0.333264384007218 0.876174680175798
-0.386727427321086 -0.333333333333334 0.88567669659477
-0.391219554525641 -0.333217220598825 0.891654506897483
-0.391922808895229 -0.333182184776174 0.905451334979869
-0.395586163183936 -0.332999678080564 0.91060591363029
-0.395306250368784 -0.333013623213611 0.923779977027586
-0.393126978240886 -0.333122193590252 0.932929928387004
-0.392586093818708 -0.333149140213707 0.936792299961659
-0.392490490139423 -0.33315390314686 0.944136075945864
-0.396681987428189 -0.332945084599829 0.953886506262033
-0.389396715634986 -0.333308033628727 0.955095054008411
-0.38095134829777 -0.325980888025461 0.955555555555555
-0.372324447674842 -0.319290910573145 0.955555555555555
-0.364409892481612 -0.310893781938912 0.955555555555555
0.111111111111114 0.182144389137246 0.41435734802039
0.111111111111113 0.189134342469089 0.413725173549326
0.111111111111114 0.181887521316992 0.429921384610079
0.111111111111114 0.194091168068865 0.435896666010705
0.111111111111114 0.182787647902047 0.457192219850916
0.111111111111114 0.189301284656154 0.46035441459839
0.111111111111114 0.184470994974742 0.47710372086405
0.111111111111114 0.188783416364074 0.486552499407541
0.111111111111114 0.187943445349339 0.499155084398027
0.111111111111114 0.190869541453405 0.503880327734793
0.111111111111114 0.189401500883461 0.509282720064035
0.111111111111114 0.182557691460013 0.523524306002039
0.111111111111114 0.181526843866397 0.542150537325934
0.111111111111113 0.187486371509721 0.552206414897882
0.111111111111113 0.178311786023447 0.568102210060601
0.111111111111114 0.18623896676247 0.565339495531662
0.111111111111114 0.188598958578903 0.576233844270103
0.111111111111114 0.187082698439561 0.592554150710976
0.111111111111114 0.194072324972192 0.598130797165157
0.111111111111114 0.189480318564709 0.611998063004623
0.111111111111113 0.1814458209646 0.62390737017322
0.111111111111114 0.183129426415961 0.637682768527353
0.111111111111114 0.194511717732683 0.640498011138129
0.111111111111114 0.189787486968286 0.655580227638013
0.111111111111114 0.181904406244049 0.670410100073217
0.111111111111114 0.191173553153321 0.682009978899583
0.111111111111114 0.190514415429682 0.688953999369076
0.111111111111114 0.182618134230638 0.703884469027591
0.111111111111114 0.186975580660638 0.715303910718566
0.111111111111113 0.191475753608825 0.716646866090008
0.111111111111113 0.188792233773362 0.735255429840563
0.111111111111114 0.184047420449462 0.745217902123521
0.111111111111114 0.178999773681192 0.749973250625588
0.111111111111113 0.179586543238997 0.770999109455234
0.111111111111114 0.18768701446168 0.76521568957968
0.111111111111114 0.18564471208425 0.789415251478199
0.111111111111113 0.17909115953126 0.803772550950124
0.111111111111113 0.195116884930188 0.805351155511328
0.111111111111113 0.194322611494369 0.817514042353549
0.111111111111113 0.188026772264076 0.830586989756331
0.111111111111114 0.191072981097734 0.828309526583775
0.111111111111114 0.186766621891373 0.855631961278656
0.111111111111114 0.187462825586507 0.867174180794022
0.111111111111114 0.182778203849573 0.867035786487409
0.111111111111114 0.1912464153681 0.877001011557286
0.111111111111114 0.180943121928164 0.889173567675095
0.111111111111114 0.187421734806415 0.903583492913586
0.111111111111114 0.184422760272139 0.911403148282181
0.111111111111114 0.189259273874041 0.923977731036596
0.111111111111113 0.181087931749623 0.933909961678106
0.111111111111113 0.188519700877109 0.945395082546142
0.113562693177551 0.188754413236429 0.955555555555555
0.124900256949319 0.2061539246832 0.955555555555555
0.125791392850186 0.206015687215063 0.955555555555555
0.138123358684412 0.215531475509619 0.955555555555555
-0.405250237641234 -0.332276906998204 0.509295316456937
-0.402051621187226 -0.33267757181325 0.516767577821335
-0.405766282319522 -0.332181120777185 0.532492500297619
-0.401943108400216 -0.33268297787246 0.530084999917658
-0.404398440972648 -0.332435014207511 0.546615092183098
-0.402791409790203 -0.332640715871199 0.55179422208695
-0.402878821875462 -0.332636361039649 0.561455910609568
-0.404673486048635 -0.332383961402304 0.566548491662866
-0.404860115819994 -0.332349319904619 0.575052958340473
-0.404528394298861 -0.332410892772778 0.587490400703658
-0.408135485166313 -0.331741358490947 0.597320392351229
-0.403840387369983 -0.332538597962901 0.607957948250352
-0.403542522084023 -0.332593886567387 0.615662299694654
-0.407102102504539 -0.331933170991306 0.619913507869252
-0.401539594733716 -0.332703080745428 0.632920883384313
-0.400908889946356 -0.332734502179877 0.635769449732912
-0.404500710896947 -0.33241603125897 0.646425600783717
-0.406105680047935 -0.332118123081063 0.653788471076649
-0.399331114772256 -0.332813106243461 0.660883020790306
-0.402260728697884 -0.332667154169258 0.671472806531516
-0.401512828160262 -0.332704414244318 0.682765865320937
-0.405242915696767 -0.33227826606927 0.685145713982514
-0.405761238719551 -0.33218205695074 0.698060080873705
-0.402442105367032 -0.332658118063565 0.708435161736793
-0.404808613641297 -0.332358879540207 0.707845970868555
-0.400972977008741 -0.332731309390684 0.721151078816228
-0.402156211260875 -0.332672361181892 0.724530676245398
-0.401821759060405 -0.33268902344307 0.736484927356992
-0.401694609028976 -0.33269535800158 0.744381846945886
-0.400797709108474 -0.332740041160205 0.75332226302149
-0.401257709287974 -0.332717124154061 0.760287940817448
-0.405090865466145 -0.332306489046097 0.764249230913101
-0.400521300928915 -0.332753811693851 0.77510501343602
-0.401451273464567 -0.33270748087212 0.784507496625898
-0.406580644563798 -0.332029962001205 0.797475639799586
-0.404358554836526 -0.33244241771812 0.799890136917544
-0.398211937482325 -0.332868863162637 0.809611007460791
-0.406198592115638 -0.332100877101739 0.821602505983626
-0.405758354512246 -0.332182592306166 0.828410719814413
-0.401076768459556 -0.332726138546362 0.834080724380352
-0.404001840930197 -0.332508629576337 0.840967142261329
-0.40089695154649 -0.332735096945696 0.845589981082104
-0.403864293040666 -0.332534160684595 0.858756908758177
-0.405298535862884 -0.332267942068755 0.869404887615768
-0.405784790662682 -0.332177685329978 0.875925086701229
-0.403322191063914 -0.332614272582147 0.888729733818002
-0.404162454578569 -0.332478817090967 0.894619587248943
-0.405044627020283 -0.332315071647916 0.898907888588025
-0.404405830249254 -0.332433642638513 0.909895033639274
-0.401477436840942 -0.332706177424243 0.921859081744106
-0.406714778441248 -0.332005064588689 0.930927500689874
-0.402563855304803 -0.33265205253534 0.935220120134942
-0.402060506171729 -0.33267712916724 0.942328435948235
-0.407561590824317 -0.331847882543219 0.950072134686312
-0.400550101446648 -0.332752376864755 0.949622577461724
-0.393493894505051 -0.326128205858598 0.955555555555555
-0.385074758312145 -0.319270674972528 0.955555555555555
-0.381681386888363 -0.305110279137139 0.955555555555555
-0.379091413829259 -0.305980751051689 0.955555555555555
0.111111111111114 0.199908788008053 0.405674742391048
0.111111111111114 0.206792727655158 0.41212729722645
0.111111111111114 0.203896318478148 0.423691147562582
0.111111111111114 0.201093072498164 0.42967377051071
0.111111111111114 0.198297886626366 0.443387523916158
0.111111111111114 0.196387513829378 0.455332638869152
0.111111111111114 0.202625077689897 0.464400543420728
0.111111111111114 0.200799552339568 0.480787012301026
0.111111111111114 0.201070014892353 0.485603839965344
0.111111111111114 0.200199617678536 0.503126299614814
0.111111111111114 0.203335039018949 0.510236579694275
0.111111111111114 0.195911183407011 0.522830897094348
0.111111111111114 0.202265183044116 0.533198017287204
0.111111111111114 0.201967553597114 0.539952637778984
0.111111111111113 0.204949333854635 0.557088774560253
0.111111111111114 0.204907959775671 0.562504941337755
0.111111111111114 0.202641392584167 0.580034760109376
0.111111111111114 0.211457972195155 0.579090627357344
0.111111111111114 0.19818553151189 0.591469465489068
0.111111111111114 0.201576298547707 0.61338567377517
0.111111111111114 0.202111085892941 0.621788017260904
0.111111111111114 0.196391411210253 0.624071493893489
0.111111111111114 0.195865198645721 0.634286991829584
0.111111111111114 0.205302307414895 0.647126092546021
0.111111111111114 0.202172375398995 0.654004627536896
0.111111111111114 0.199150226138604 0.66967873586547
0.111111111111114 0.20794743746453 0.676315723407618
0.111111111111114 0.199525396829759 0.689938155065098
0.111111111111114 0.202396368277646 0.702985013568215
0.111111111111114 0.200103024751139 0.713622417483078
0.111111111111114 0.198943317923163 0.719132880216628
0.111111111111114 0.20204812311375 0.733344684285958
0.111111111111114 0.199264467720572 0.749747046507124
0.111111111111114 0.198830967764536 0.756665621694689
0.111111111111114 0.203494773938075 0.766003413056612
0.111111111111114 0.200129315232009 0.782630243662926
0.111111111111113 0.211055338420667 0.778910639767849
0.111111111111114 0.209032698405292 0.79119962203232
0.111111111111114 0.197620716129128 0.806640624303068
0.111111111111114 0.201877983348043 0.816902502438231
0.111111111111114 0.208377519861785 0.824094254275133
0.111111111111114 0.210645506944197 0.832052421776972
0.111111111111114 0.195023888117648 0.854400193655411
0.111111111111114 0.206603457769349 0.859243795726614
0.111111111111114 0.201301891516641 0.869564624278686
0.111111111111114 0.201612358264967 0.881823167896102
0.111111111111114 0.194818494887089 0.893707022199347
0.111111111111114 0.204303004916821 0.906900756730763
0.111111111111114 0.197916991827195 0.921747750015757
0.111111111111114 0.202392620166352 0.930009934121624
0.111111111111114 0.198049774621727 0.945203571762678
0.111111111111114 0.205143331513152 0.942343852399643
0.120208370749232 0.209297173777267 0.955555555555555
0.12795946005193 0.217711186222862 0.955555555555555
0.132712230018705 0.22977738273503 0.955555555555555
0.152057273102661 0.241280369245622 0.955555555555555
-0.416828813923672 -0.330127736367149 0.519883638555003
-0.408853204848193 -0.331608138134316 0.522530692825377
-0.417980059138525 -0.329892686971716 0.537035832652165
-0.41400420211769 -0.330652029906308 0.548326742121527
-0.414102607490807 -0.330633764280839 0.547592746678154
-0.416979231236767 -0.33009981648617 0.559535492921181
-0.413223397676772 -0.330796959812377 0.563771327499521
-0.414084378760769 -0.330637147827338 0.577359271415241
-0.410408779460626 -0.331319398379971 0.583247710825039
-0.408874958116719 -0.33160410037659 0.594363816945752
-0.412069644064466 -0.331011115103887 0.597777944546419
-0.411922311407112 -0.331038462422975 0.60581805494701
-0.41141268316993 -0.331133057648968 0.613318611365009
-0.416883900373356 -0.330117511433017 0.628435522087659
-0.414888470481242 -0.330487895426338 0.635858321184119
-0.413144988330454 -0.330811513852545 0.64381177896329
-0.40997385199273 -0.331400127937547 0.653772097744122
-0.415592509159359 -0.330357214484811 0.655966320934863
-0.411047847962283 -0.331200776951784 0.663897921612557
-0.41602309820892 -0.330277290207698 0.67534652505995
-0.411832899171177 -0.331055058777038 0.679268761410358
-0.411313494981091 -0.331151468577669 0.693923996378268
-0.411058109988195 -0.33119887215415 0.695773425754237
-0.410041150554345 -0.331387636238342 0.704715579499194
-0.40991266880824 -0.331411484524057 0.71665122948971
-0.413701863512855 -0.330708148830975 0.723212749145707
-0.406343120541966 -0.332074050293188 0.729734640471061
-0.410514785620131 -0.331299721925874 0.734471726782735
-0.409112409351013 -0.331560025595148 0.744708729134561
-0.41119262401699 -0.33117390417941 0.756138164772581
-0.413143411064131 -0.330811806618631 0.770677339729099
-0.413056139553477 -0.330828005619531 0.774641912725327
-0.411897500243823 -0.331043067775323 0.779649101331074
-0.415631406714092 -0.330349994470863 0.794686224713095
-0.41038998633531 -0.331322886687342 0.798657446779914
-0.409766232334795 -0.331438665496948 0.808342701315149
-0.413032523402404 -0.330832389158325 0.810590394255501
-0.411495878531017 -0.331117615247214 0.816693584885789
-0.41778542349036 -0.329950174192321 0.834876314395084
-0.413708020317952 -0.330707006028581 0.83572653606924
-0.411980396728603 -0.331027680849836 0.848765161655103
-0.412716419931446 -0.330891063064303 0.855769607928192
-0.410166705518697 -0.331364331210558 0.862077961467457
-0.416804023393529 -0.330132337889651 0.876929591187795
-0.412243357790354 -0.330978871032701 0.884927234765168
-0.414464960889767 -0.330566505641771 0.892917531468905
-0.413564027358575 -0.330733733445823 0.892917876772581
-0.415848760239744 -0.330309650148513 0.906642225405315
-0.412490451112771 -0.330933006524084 0.912022111507881
-0.414471136384521 -0.330565359370275 0.922865681829418
-0.412642502624188 -0.330904783309522 0.923425685781512
-0.410333445788658 -0.331333381525339 0.931721781275638
-0.417954244322093 -0.32990116377083 0.950458216858355
-0.407297557756436 -0.327692789545942 0.955555555555555
-0.407284769727943 -0.326674536142641 0.955555555555555
-0.400958900475634 -0.321896181497329 0.955555555555555
-0.394880832718521 -0.310980655621256 0.955555555555555
-0.380872950204841 -0.302700996838688 0.955555555555555
0.111111111111114 0.218738041098278 0.385762909840486
0.111111111111114 0.216366865489971 0.398415786609974
0.111040839281062 0.222249730142193 0.392529718344848
0.111111111111114 0.2173243185009 0.422849163263254
0.111000177854194 0.223065904102298 0.424016267986897
0.111111111111114 0.208501785273502 0.444895564926098
0.111111111111114 0.218690545244444 0.443822980029119
0.111111111111114 0.218432704037924 0.455624091741916
0.111111111111114 0.219916404763239 0.474623297513287
0.111111111111114 0.215205295377279 0.488908481016255
0.111111111111114 0.212425895786377 0.486991638167489
0.111111111111114 0.220657586293941 0.497189066964204
0.111066732055189 0.221729999045057 0.515091317162129
0.111111111111114 0.215881098564351 0.52121834203534
0.111111111111114 0.217296335304103 0.532290739808816
0.110900896380186 0.225058725310204 0.543506346355651
0.111111111111113 0.21436178686272 0.55279180596326
0.110920769016791 0.224659833048791 0.562184058680902
0.111111111111114 0.21836302259086 0.578950314349881
0.111111111111114 0.211198558310336 0.59308202824381
0.111111111111114 0.216779084382594 0.605860641693171
0.111111111111114 0.213061900401872 0.608484201372888
0.110931638501905 0.224441655985359 0.614359399363371
0.111111111111114 0.219335681645476 0.628628067805422
0.111111111111114 0.219084629743983 0.642271490685057
0.111111111111114 0.220246338018105 0.646280883154684
0.111111111111114 0.207458008849445 0.669203871579281
0.111111111111114 0.216284344425202 0.673405752039643
0.111111111111114 0.218563781963344 0.688374789239666
0.111104920675023 0.220963460350235 0.684267368037224
0.111057481005569 0.221915690162785 0.700947053276993
0.111111111111114 0.211845079902568 0.717496706944204
0.110860144991106 0.225876705031206 0.722030505290058
0.11094838267884 0.224105559535938 0.737869881399395
0.111111111111114 0.210682218679212 0.74961059841023
0.111111111111114 0.219143683088988 0.767447461699042
0.111111111111114 0.219747896631379 0.763320830344994
0.111014311429796 0.222782208785678 0.781539523706702
0.111111111111114 0.218583505019182 0.785933880953471
0.110955862698206 0.223955417312771 0.796262977984638
0.111091422819716 0.221234395210792 0.810233655631099
0.111111111111114 0.209710162038718 0.829163239505055
0.110991326737325 0.223243567594777 0.831320713038787
0.111111111111114 0.207361477156912 0.846096995528635
0.111111111111114 0.217431710818426 0.862599606559041
0.111111111111114 0.216794954383538 0.863241114474378
0.111111111111114 0.215180558635328 0.877607168553813
0.111111111111114 0.215484456273846 0.893172227464546
0.111111111111114 0.219407667763039 0.896669648756824
0.111111111111114 0.217634468413229 0.917955578033682
0.111111111111114 0.218409805240614 0.916594462570228
0.110921756665984 0.224640008521849 0.928246797192905
0.111111111111114 0.220417915033302 0.941311129143207
0.111111111111114 0.2144499421353 0.955242759713511
0.116090054137538 0.227210049490916 0.955555555555555
0.134211674114383 0.23488914479017 0.955555555555555
0.144757402560823 0.251068305042083 0.955555555555555
0.156508896957231 0.25983974429025 0.955555555555555
-0.417541898913921 -0.329995376284086 0.51756298819813
-0.418519072138076 -0.329715691526914 0.534739614182683
-0.42158471102572 -0.328709029129216 0.541740572832532
-0.425223716944757 -0.327514090469459 0.545102058861414
-0.421758345724912 -0.328652012784819 0.558837063188606
-0.42204943044577 -0.328556429432124 0.559012328605142
-0.423036772538681 -0.328232216374088 0.576451356110489
-0.42288118620292 -0.328283306185884 0.586056212939378
-0.419636270314162 -0.329348837688005 0.586844527943192
-0.423605721957522 -0.328045390721384 0.601217589889872
-0.424680813997115 -0.327692363254682 0.604268734481761
-0.418456471094357 -0.329736247802157 0.614141962039082
-0.420975888478639 -0.328908947902261 0.6154744719993
-0.4217844125235 -0.328643453242444 0.624383105658282
-0.424029028448471 -0.327906389768317 0.633922219162397
-0.417653439673708 -0.329974672518852 0.643343220216226
-0.420076978611305 -0.329204122512033 0.65590450653375
-0.421747343273138 -0.328655625654726 0.668014559303034
-0.421352530015984 -0.328785270298031 0.669218520148085
-0.417311926713191 -0.33003806283619 0.675250863274511
-0.421703996481706 -0.328669859420213 0.680436061163844
-0.420716151221528 -0.328994237703049 0.691392070126939
-0.42233007951445 -0.32846427282962 0.699999389783322
-0.418228899066939 -0.32981097552162 0.713721872341632
-0.422531975104384 -0.328397976469841 0.727643770813695
-0.420618629821318 -0.329026260759306 0.729279653959289
-0.420748610282786 -0.328983579136391 0.73343850188572
-0.419199879600651 -0.329492135101071 0.749520648843111
-0.422229957309098 -0.328497149911037 0.756590010887875
-0.422995814822911 -0.328245665639925 0.761819627369305
-0.418633919955005 -0.32967797900336 0.771234591314666
-0.422993473881824 -0.328246434333648 0.778042793224342
-0.422629344609249 -0.328366003291387 0.789193322024227
-0.420009543611724 -0.329226266111087 0.792245005864344
-0.421910313162987 -0.328602111308751 0.80284709527022
-0.425819834389444 -0.327318343664903 0.807197382390379
-0.418798457479104 -0.329623949894065 0.817943218198058
-0.421129075865242 -0.328858645832269 0.821908450712099
-0.419829946546268 -0.329285240314885 0.833437509027016
-0.421085332631766 -0.328873009777244 0.849804643639647
-0.421511813527949 -0.328732966446226 0.85570219738423
-0.419417439283844 -0.329420695130366 0.855199995503482
-0.422602801140251 -0.328374719357801 0.86914720438114
-0.419698740436074 -0.329328324403494 0.879475803652591
-0.425105106771023 -0.327553038436345 0.886653449765141
-0.419923787248212 -0.329254425887784 0.893812711204119
-0.420535106370961 -0.329053687315362 0.896267955151315
-0.420705937562994 -0.328997591557291 0.907897586006103
-0.421607249970421 -0.328701628026559 0.916421362743106
-0.423145839716356 -0.328196402036323 0.92111698828057
-0.422014800337482 -0.328567800904473 0.937775492793205
-0.423780364424433 -0.327988043456776 0.942539711632384
-0.419933626072801 -0.329251195117587 0.951949795385182
-0.416999694242046 -0.330096018222127 0.952230991089258
-0.414041081965484 -0.318490199997368 0.955555555555555
-0.405896955680204 -0.311555395900999 0.955555555555555
-0.399098133192421 -0.29842748695194 0.955555555555555
-0.391528018752105 -0.291554068989912 0.955555555555555
-0.391623061273658 -0.290007057177859 0.955555555555555
0.109570878328389 0.236077717660834 0.384856576295707
0.11023323069009 0.232509319119099 0.390497803203596
0.110612645655731 0.23046523520184 0.398277749490738
0.109965167300644 0.23395350059002 0.414086068989622
0.110665332871877 0.229787059169657 0.422767731208526
0.110089325032614 0.23328460545908 0.439319559788679
0.110180689316829 0.232792383799719 0.447441164869606
0.11082750847568 0.22653179945585 0.467385667267796
0.110677169046462 0.22954947829195 0.477584076818826
0.110889389952195 0.225289687369928 0.480711759518174
0.11089607216195 0.225155559130492 0.500016151638634
0.11033908933402 0.231939009639623 0.509009938713757
0.110078838597834 0.23334110073371 0.514681827555398
0.110175315039828 0.232821337515779 0.526921287153806
0.110576555443429 0.230659669868942 0.53351926102001
0.110781490859164 0.227455485199336 0.548424836958284
0.110156543321545 0.232922469444978 0.558296468743001
0.109892087115186 0.234347217352121 0.565472186739845
0.1102169296152 0.232597140549542 0.579389224359259
0.11044883243805 0.231347772776845 0.584152137770817
0.110725235009838 0.228584677233634 0.597020171581702
0.108808493390249 0.238959777941002 0.608893734532544
0.110273417832222 0.232292812395978 0.629137534958521
0.109338643340064 0.237328874962589 0.627965495894728
0.110715589093901 0.228778294280939 0.647724145115083
0.110157802087494 0.232915687890567 0.651290337673653
0.110654274142941 0.230009034817939 0.669586067420512
0.110730929564315 0.228470373643319 0.679962025116169
0.110934726779185 0.224379666731856 0.694242187493554
0.110422343500569 0.231490480935437 0.694502713419857
0.110602761431792 0.230518486088119 0.706133867621518
0.110642648854788 0.230242382690868 0.720765549286421
0.109371798624377 0.237150252110115 0.73149976911963
0.110011917386265 0.233701636254656 0.732985808007979
0.110536912052887 0.230873247150732 0.754553622043164
0.109868670415942 0.234473373942278 0.755381366172157
0.109343206760173 0.237304289707667 0.766549530215388
0.110289536936427 0.232205971325779 0.787736923964339
0.110695455061931 0.229182433384547 0.794707796587121
0.110699987939216 0.229091447487368 0.802244807875636
0.109860821424724 0.2345156600885 0.814769403517628
0.108716604871795 0.23923961060004 0.826722706587851
0.110695616970367 0.229179183487535 0.836281088032823
0.110788402814895 0.227316745398099 0.850493990868177
0.110221834526235 0.232570715525049 0.862191561237135
0.110780961385303 0.227466113030442 0.87358734557701
0.109654461826627 0.235627414694509 0.884650862827936
0.109678963050219 0.235495415270048 0.889125120366869
0.111004727484046 0.222974581940252 0.908421560778803
0.110022530026417 0.233644461053307 0.909895350284938
0.110640517370705 0.230285166772444 0.927143849560208
0.110697474844427 0.229141891426117 0.933352744780055
0.110348015699091 0.231890919182118 0.947403816769586
0.121600850452411 0.240915057935262 0.955555555555555
0.125611797675828 0.241836843250562 0.955555555555555
0.133619608089252 0.263372708906139 0.955555555555555
0.148859123319688 0.273802308808785 0.955555555555555
-0.430892632559831 -0.325652591318849 0.532867859430229
-0.432939193422452 -0.324787939196407 0.537646825493175
-0.425426978224851 -0.327447345658645 0.539739368094636
-0.431791775832654 -0.325343657104315 0.548298833808341
-0.427853586678525 -0.326650521383582 0.564202652642407
-0.430094357082222 -0.325914720661465 0.570723906340061
-0.430793128649938 -0.325685265370877 0.578543534928567
-0.429195504943372 -0.326209876314962 0.586920081953134
-0.427414621437602 -0.326794664193002 0.58920364892247
-0.430020729000895 -0.325938897879853 0.597562960122564
-0.433396401082212 -0.324566504135257 0.611508699280015
-0.428068949766854 -0.326579802707698 0.61768950185058
-0.430564235464297 -0.325760426918443 0.629928995811961
-0.428743189891979 -0.32635840279536 0.632771693980478
-0.430118802902425 -0.325906693398997 0.645420481609369
-0.432710934804648 -0.324898489533683 0.648842217115987
-0.428782876975022 -0.326345370766592 0.654124767248434
-0.43137872061767 -0.325492974812231 0.669702318044216
-0.426234183267695 -0.327182284118899 0.675508609160595
-0.433016354342713 -0.324750568577758 0.683240688520823
-0.430379797547964 -0.325820990710163 0.690025926101729
-0.424702456909874 -0.327685256381613 0.692952924930052
-0.425849675245126 -0.327308544837177 0.705150798605752
-0.431538439979682 -0.325440527840551 0.712221678541637
-0.434979897978461 -0.323799584061706 0.724690863160661
-0.429729935360312 -0.326034385650655 0.735319920734781
-0.43040561116595 -0.325812514304583 0.742838434188513
-0.431969075669428 -0.32525778715144 0.745690493786172
-0.432097339306522 -0.325195666437325 0.752422244145995
-0.430036257083302 -0.325933798930746 0.758984852718593
-0.431785548133021 -0.325346673307171 0.770400535087589
-0.43073015720897 -0.32570594327329 0.777075514231907
-0.427123748938727 -0.326890177858464 0.789926928067226
-0.430694893930279 -0.325717522659505 0.801183437550816
-0.43339921595132 -0.324565140836328 0.801626075782272
-0.425231512884824 -0.32751153052029 0.809947892076432
-0.434037141700444 -0.324256180292359 0.82290703511395
-0.430657071799791 -0.32572994229468 0.827635657699924
-0.433355957067071 -0.324586092002553 0.843511649971034
-0.430211643710751 -0.325876207306494 0.849802723188383
-0.43245009205184 -0.325024821036853 0.851450175214074
-0.430146277388443 -0.325897671614964 0.864357155814057
-0.428345186704763 -0.326489094914497 0.86908679027333
-0.426718138852485 -0.327023367851452 0.877975049102327
-0.430481297549497 -0.325787661202464 0.891672163592265
-0.431035328153559 -0.325605734433942 0.895087248514238
-0.432016088154892 -0.325235018039044 0.908028073246765
-0.426631426117901 -0.327051841671268 0.91699220146083
-0.431156233116228 -0.325566032928294 0.919843345267344
-0.428713284772712 -0.326368222725289 0.927242328414208
-0.433191440096246 -0.324665770950876 0.933527201076725
-0.427208075577019 -0.326862487559964 0.946660235021966
-0.433883265256703 -0.324330705814847 0.95525610744143
-0.419598051243733 -0.32202711849535 0.955555555555555
-0.422259515326196 -0.314057038200466 0.955555555555555
-0.411254220916233 -0.308587154717111 0.955555555555555
-0.402486041558798 -0.300943708363125 0.955555555555555
-0.393047562033883 -0.292003363798255 0.955555555555555
0.106777682573014 0.244830596554554 0.375915891344865
0.107892716365107 0.241748639099524 0.385570572062644
0.108772276422689 0.239070071267145 0.388279633162453
0.105845250719175 0.246755833613063 0.408140129341139
0.10602176725291 0.246391371405145 0.411993812042166
0.109407717865744 0.236956738542526 0.427330475679396
0.107277268088775 0.243622894235672 0.43107329139939
0.105777535338577 0.246895648828108 0.441141427904269
0.104432629298282 0.249672541250147 0.455464290212714
0.107217171307105 0.243805909943152 0.462927537033866
0.107712222317426 0.242298306567805 0.476009199046551
0.1046078829304 0.249310686616154 0.486370448885516
0.104500104444998 0.249533222057595 0.492452402707206
0.108667596168776 0.239388859232105 0.512179075760035
0.108215808101117 0.24076471182415 0.523379796376695
0.106769537803884 0.244847413452536 0.528641766408719
0.107508927809733 0.242917409406902 0.537390392033158
0.104606593306955 0.249313349363935 0.547739068728963
0.105769184854019 0.246912890476667 0.558584724736239
0.105273922695522 0.247935482162364 0.566474695530932
0.106322950032271 0.24576950478205 0.575316511797085
0.107243305986678 0.243726320708275 0.603279424644905
0.104846347283083 0.248818317756137 0.608610761582081
0.10559404432373 0.24727451158385 0.621586359051023
0.108871382361447 0.238768259040376 0.628819950624708
0.107828244496012 0.241944978477557 0.641404588456583
0.104938401964541 0.248628248011712 0.650517734791583
0.104805866620811 0.248901900133591 0.658691407955915
0.107693685285977 0.242354758308332 0.676056117164468
0.1071400513723 0.244040767102509 0.681467252823378
0.105489845173651 0.247489656598868 0.689994391652217
0.106918301659398 0.244540253539001 0.705998091026246
0.103202234156309 0.251784020766411 0.709317374205124
0.104466349511465 0.249602917498261 0.728035458264867
0.105291463812222 0.247899264171979 0.737825611066825
0.105465052818582 0.247540846571144 0.748854214912436
0.107689132934503 0.242368621809878 0.757921564515583
0.107498653462521 0.242948698385642 0.764805512523892
0.107587826944199 0.242677133962653 0.781172563231994
0.108034441970672 0.241317035089293 0.789969090027202
0.107351203711781 0.243397734418849 0.805862621399142
0.107942323819562 0.241597567060037 0.810576400617086
0.103278671597543 0.251668558792047 0.818024757509277
0.106637993833807 0.245119018637381 0.83330652002284
0.106911736264148 0.244553809427495 0.843896137419723
0.105797499087455 0.24685442871212 0.855696274501139
0.107545062812114 0.242807365693383 0.870610630974782
0.105456249949364 0.247559022280147 0.874106154566041
0.105729262661084 0.246995319755524 0.881739839714072
0.106173425994663 0.246078234280251 0.900116209456238
0.105104670915045 0.248284944483554 0.903044730373739
0.10617566251585 0.246073616426996 0.91707054427645
0.10756964257119 0.242732511734953 0.926832555332153
0.106882170649745 0.24461485497873 0.949324559816921
0.105031569741388 0.248435880005507 0.950301508785011
0.123506747163358 0.261150303743629 0.955555555555555
0.123957562508622 0.258577634395944 0.955555555555555
0.140014455286432 0.278987508704991 0.955555555555555
-0.442137263945206 -0.320333124704157 0.525774985229682
-0.434990969846208 -0.323794221728728 0.538428070784482
-0.435164920473474 -0.323709973866813 0.543867552188801
-0.438633993572285 -0.322029830506634 0.553726618610884
-0.436477699406937 -0.323074168063472 0.563238150204127
-0.441805124741928 -0.320493986542794 0.574366587425645
-0.440161799167053 -0.321289882874349 0.578498249667015
-0.441456750744086 -0.320662711225919 0.590521283512842
-0.438508304142476 -0.322090704479285 0.595550707004027
-0.437595885539656 -0.322532607550672 0.59897708694453
-0.434064689885683 -0.324242838140379 0.607157710683956
-0.434764269045713 -0.323904017583082 0.622086788881725
-0.437134000472428 -0.322756307976338 0.630394724364412
-0.440820456458582 -0.320970881618545 0.639267761833626
-0.4398328217169 -0.321449213411001 0.642295799397736
-0.434926951044221 -0.323825227349544 0.651767723922963
-0.434171482091685 -0.324191116481387 0.660852263385873
-0.440325903649661 -0.321210403702541 0.672692644325615
-0.43518794696793 -0.32369882166256 0.679137948075026
-0.441139629052905 -0.320816299774971 0.687997380360676
-0.439082762181831 -0.32181248265085 0.690928481411795
-0.439029078170845 -0.321838482920097 0.709059563710852
-0.436724863504846 -0.322954461413843 0.706757193090639
-0.438281081602629 -0.322200753022724 0.712128701467755
-0.438299653725907 -0.322191758161929 0.723366321644835
-0.436019775137416 -0.323295950193448 0.736830178080886
-0.437136270408812 -0.322755208599519 0.745308866386591
-0.440562498366485 -0.321095816021279 0.754111632552646
-0.440893219279122 -0.320935641089932 0.758478838902494
-0.440308785677179 -0.321218694288236 0.768989105687813
-0.440470387912721 -0.321140427006083 0.780326422822292
-0.441311978958269 -0.320732827175555 0.787880184236841
-0.437969781840369 -0.322351521892012 0.79700706067974
-0.434884997563715 -0.323845546281922 0.802581737475177
-0.439572464634594 -0.321575309693971 0.810296857973947
-0.441974873013147 -0.320411773968234 0.816260209901028
-0.437140945344842 -0.322752944431972 0.824323048595602
-0.436812506100012 -0.322912014304732 0.833124209905035
-0.439245340681235 -0.321733742544055 0.842425615372503
-0.439391435428983 -0.32166298585678 0.852325610064037
-0.441002797652865 -0.320882570032672 0.855473585719612
-0.441342028800127 -0.320718273419888 0.871150024109689
-0.437834262818601 -0.322417156537958 0.871703739540965
-0.438777381859063 -0.321960384614001 0.881393850887411
-0.441858241597024 -0.320468260958794 0.891512269690299
-0.436376601862929 -0.323123131680686 0.901214981783947
-0.438999345640848 -0.321852882995112 0.905162197386261
-0.436026814703097 -0.323292540787189 0.919447873540456
-0.441179224911651 -0.32079712268724 0.921440040065316
-0.438764197535736 -0.321966770052608 0.930669539230955
-0.441834642860218 -0.320479690311772 0.940719240513412
-0.441110459225554 -0.320830427321537 0.94672627568178
-0.440985688770646 -0.320890856215766 0.954008347499914
-0.434533731829157 -0.31691163276234 0.955555555555555
-0.422715408279166 -0.310386342545668 0.955555555555555
-0.416041219538357 -0.296163181290657 0.955555555555555
-0.415010486447747 -0.293419325865482 0.955555555555555
-0.398003494893343 -0.283409696424563 0.955555555555555
0.0977938884434229 0.259135368597027 0.367706320628425
0.0998432471481738 0.256791795976991 0.373557348637646
0.102497814309655 0.252848076613419 0.390158488321943
0.103351725803734 0.251558207336712 0.398093433292542
0.100724114628124 0.255527324686757 0.40003565754527
0.0997080144934641 0.25694644315817 0.417341412793379
0.102028686351162 0.253556714153376 0.429640385535861
0.100051940853052 0.256542671484505 0.441156184750224
0.103778412602222 0.250913678956473 0.456073812621078
0.102367596946472 0.253044775424979 0.464295377342291
0.103556757177348 0.251248498811391 0.473069154009286
0.0973631209425699 0.259627978757592 0.483422644063061
0.0999272507277304 0.256695732516468 0.501269476515792
0.101681687413803 0.254080870663099 0.507212869381124
0.103620363151423 0.251152419308605 0.524181803914354
0.0978373506246058 0.259085666815884 0.530858030300129
0.0985769440081683 0.258239894526407 0.536410691466091
0.100886507359081 0.255282023627016 0.553347244441739
0.100238158264076 0.25626138224208 0.558820090712354
0.0978284019702993 0.259095900173847 0.572767811055479
0.101833679561911 0.253851280121802 0.580227521719333
0.0997579008640717 0.256889394905953 0.602274735168025
